ply
format ascii 1.0
element vertex 826
property double x
property double y
property double z
end_header
-34.000000000000000 -17.000000000000000 11.986844382503577
-34.000000000000000 -16.000000000000000 12.423411543888129
-34.000000000000000 -15.000000000000000 12.838191647875909
-34.000000000000000 -14.000000000000000 13.230447378299530
-34.000000000000000 -13.000000000000000 13.599450553597407
-34.000000000000000 -12.000000000000000 13.944487245360108
-34.000000000000000 -11.000000000000000 14.264863229588727
-34.000000000000000 -10.000000000000000 14.559909706661301
-34.000000000000000 -9.000000000000000 14.828989209862051
-34.000000000000000 -8.000000000000000 15.071501606854042
-34.000000000000000 -7.000000000000000 15.286890084580435
-34.000000000000000 -6.000000000000000 15.474646996735864
-34.000000000000000 -5.000000000000000 15.634319445120838
-34.000000000000000 -4.000000000000000 15.765514462752620
-34.000000000000000 -3.000000000000000 15.867903668247976
-34.000000000000000 -2.000000000000000 15.941227268147195
-34.000000000000000 -1.000000000000000 15.985297296610099
-34.000000000000000 0.000000000000000 16.000000000000000
-34.000000000000000 1.000000000000000 15.985297296610099
-34.000000000000000 2.000000000000000 15.941227268147195
-34.000000000000000 3.000000000000000 15.867903668247976
-34.000000000000000 4.000000000000000 15.765514462752620
-34.000000000000000 5.000000000000000 15.634319445120838
-34.000000000000000 6.000000000000000 15.474646996735864
-34.000000000000000 7.000000000000000 15.286890084580435
-34.000000000000000 8.000000000000000 15.071501606854042
-34.000000000000000 9.000000000000000 14.828989209862051
-34.000000000000000 10.000000000000000 14.559909706661301
-34.000000000000000 11.000000000000000 14.264863229588727
-34.000000000000000 12.000000000000000 13.944487245360108
-34.000000000000000 13.000000000000000 13.599450553597407
-34.000000000000000 14.000000000000000 13.230447378299530
-34.000000000000000 15.000000000000000 12.838191647875909
-34.000000000000000 16.000000000000000 12.423411543888129
-34.000000000000000 17.000000000000000 11.986844382503577
-34.000000000000000 18.000000000000000 11.529231876657313
-34.000000000000000 19.000000000000000 11.051315811699105
-34.000000000000000 20.000000000000000 10.553834153367958
-34.000000000000000 21.000000000000000 10.037517594623829
-34.000000000000000 22.000000000000000 9.503086537366826
-34.000000000000000 23.000000000000000 8.951248496452415
-34.000000000000000 24.000000000000000 8.382695906630374
-34.000000000000000 25.000000000000000 7.798104307981617
-34.000000000000000 26.000000000000000 7.198130881934610
-34.000000000000000 27.000000000000000 6.583413307815178
-34.000000000000000 28.000000000000000 5.954568908909522
-34.000000000000000 29.000000000000000 5.312194056991338
-34.000000000000000 30.000000000000000 4.656863804981462
-34.000000000000000 31.000000000000000 3.989131718690636
-34.000000000000000 32.000000000000000 3.309529880284991
-34.000000000000000 33.000000000000000 2.618569038071463
-34.000000000000000 34.000000000000000 1.916738879314771
-34.000000000000000 35.000000000000000 1.204508404976593
-33.000000000000000 -36.000000000000000 1.163538211700882
-33.000000000000000 -35.000000000000000 1.895946116777225
-33.000000000000000 -34.000000000000000 2.618569038071463
-33.000000000000000 -33.000000000000000 3.330952441687863
-33.000000000000000 -32.000000000000000 4.032620261755184
-33.000000000000000 -31.000000000000000 4.723074309312913
-33.000000000000000 -30.000000000000000 5.401793758044484
-33.000000000000000 -29.000000000000000 6.068234727022407
-33.000000000000000 -28.000000000000000 6.721829983235196
-33.000000000000000 -27.000000000000000 7.361988789344316
-33.000000000000000 -26.000000000000000 7.988096924799990
-33.000000000000000 -25.000000000000000 8.599516911031095
-33.000000000000000 -24.000000000000000 9.195588473793670
-33.000000000000000 -23.000000000000000 9.775629277762469
-33.000000000000000 -22.000000000000000 10.338935969896120
-33.000000000000000 -21.000000000000000 10.884785568784110
-33.000000000000000 -20.000000000000000 11.412437236850522
-33.000000000000000 -19.000000000000000 11.921134470680457
-33.000000000000000 -18.000000000000000 12.410107741574997
-33.000000000000000 -17.000000000000000 12.878577613458830
-33.000000000000000 -16.000000000000000 13.325758358215502
-33.000000000000000 -15.000000000000000 13.750862079216283
-33.000000000000000 -14.000000000000000 14.153103342130159
-33.000000000000000 -13.000000000000000 14.531704298063602
-33.000000000000000 -12.000000000000000 14.885900267841123
-33.000000000000000 -11.000000000000000 15.214945738147826
-33.000000000000000 -10.000000000000000 15.518120700866668
-33.000000000000000 -9.000000000000000 15.794737247025857
-33.000000000000000 -8.000000000000000 16.044146307300707
-33.000000000000000 -7.000000000000000 16.265744413134001
-33.000000000000000 -6.000000000000000 16.458980337503156
-33.000000000000000 -5.000000000000000 16.623361463442727
-33.000000000000000 -4.000000000000000 16.758459722810677
-33.000000000000000 -3.000000000000000 16.863916948438217
-33.000000000000000 -2.000000000000000 16.939449490366918
-33.000000000000000 -1.000000000000000 16.984851961561645
-33.000000000000000 0.000000000000000 17.000000000000000
-33.000000000000000 1.000000000000000 16.984851961561645
-33.000000000000000 2.000000000000000 16.939449490366918
-33.000000000000000 3.000000000000000 16.863916948438217
-33.000000000000000 4.000000000000000 16.758459722810677
-33.000000000000000 5.000000000000000 16.623361463442727
-33.000000000000000 6.000000000000000 16.458980337503156
-33.000000000000000 7.000000000000000 16.265744413134001
-33.000000000000000 8.000000000000000 16.044146307300707
-33.000000000000000 9.000000000000000 15.794737247025857
-33.000000000000000 10.000000000000000 15.518120700866668
-33.000000000000000 11.000000000000000 15.214945738147826
-33.000000000000000 12.000000000000000 14.885900267841123
-33.000000000000000 13.000000000000000 14.531704298063602
-33.000000000000000 14.000000000000000 14.153103342130159
-33.000000000000000 15.000000000000000 13.750862079216283
-33.000000000000000 16.000000000000000 13.325758358215502
-33.000000000000000 17.000000000000000 12.878577613458830
-33.000000000000000 18.000000000000000 12.410107741574997
-33.000000000000000 19.000000000000000 11.921134470680457
-33.000000000000000 20.000000000000000 11.412437236850522
-33.000000000000000 21.000000000000000 10.884785568784110
-33.000000000000000 22.000000000000000 10.338935969896120
-33.000000000000000 23.000000000000000 9.775629277762469
-33.000000000000000 24.000000000000000 9.195588473793670
-33.000000000000000 25.000000000000000 8.599516911031095
-33.000000000000000 26.000000000000000 7.988096924799990
-33.000000000000000 27.000000000000000 7.361988789344316
-33.000000000000000 28.000000000000000 6.721829983235196
-33.000000000000000 29.000000000000000 6.068234727022407
-33.000000000000000 30.000000000000000 5.401793758044484
-33.000000000000000 31.000000000000000 4.723074309312913
-33.000000000000000 32.000000000000000 4.032620261755184
-33.000000000000000 33.000000000000000 3.330952441687863
-33.000000000000000 34.000000000000000 2.618569038071463
-33.000000000000000 35.000000000000000 1.895946116777225
-33.000000000000000 36.000000000000000 1.163538211700882
-32.000000000000000 -37.000000000000000 1.081700765459964
-32.000000000000000 -36.000000000000000 1.833621684830817
-32.000000000000000 -35.000000000000000 2.576377194482497
-32.000000000000000 -34.000000000000000 3.309529880284991
-32.000000000000000 -33.000000000000000 4.032620261755184
-32.000000000000000 -32.000000000000000 4.745166004060955
-32.000000000000000 -31.000000000000000 5.446661180109075
-32.000000000000000 -30.000000000000000 6.136575601077382
-32.000000000000000 -29.000000000000000 6.814354236621632
-32.000000000000000 -28.000000000000000 7.479416749061400
-32.000000000000000 -27.000000000000000 8.131157169083359
-32.000000000000000 -26.000000000000000 8.768943743823392
-32.000000000000000 -25.000000000000000 9.392118991506095
-32.000000000000000 -24.000000000000000 10.000000000000000
-32.000000000000000 -23.000000000000000 10.591879009523936
-32.000000000000000 -22.000000000000000 11.167024322104801
-32.000000000000000 -21.000000000000000 11.724681581990723
-32.000000000000000 -20.000000000000000 12.264075471773587
-32.000000000000000 -19.000000000000000 12.784411868143209
-32.000000000000000 -18.000000000000000 13.284880498628361
-32.000000000000000 -17.000000000000000 13.764658136013125
-32.000000000000000 -16.000000000000000 14.222912360003363
-32.000000000000000 -15.000000000000000 14.658805905855417
-32.000000000000000 -14.000000000000000 15.071501606854042
-32.000000000000000 -13.000000000000000 15.460167921658915
-32.000000000000000 -12.000000000000000 15.823985018729879
-32.000000000000000 -11.000000000000000 16.162151368622737
-32.000000000000000 -10.000000000000000 16.473890771519578
-32.000000000000000 -9.000000000000000 16.758459722810677
-32.000000000000000 -8.000000000000000 17.015154995058715
-32.000000000000000 -7.000000000000000 17.243321291681603
-32.000000000000000 -6.000000000000000 17.442358807800588
-32.000000000000000 -5.000000000000000 17.611730518596708
-32.000000000000000 -4.000000000000000 17.750969006805803
-32.000000000000000 -3.000000000000000 17.859682640023607
-32.000000000000000 -2.000000000000000 17.937560916237203
-32.000000000000000 -1.000000000000000 17.984378812835757
-32.000000000000000 0.000000000000000 18.000000000000000
-32.000000000000000 1.000000000000000 17.984378812835757
-32.000000000000000 2.000000000000000 17.937560916237203
-32.000000000000000 3.000000000000000 17.859682640023607
-32.000000000000000 4.000000000000000 17.750969006805803
-32.000000000000000 5.000000000000000 17.611730518596708
-32.000000000000000 6.000000000000000 17.442358807800588
-32.000000000000000 7.000000000000000 17.243321291681603
-32.000000000000000 8.000000000000000 17.015154995058715
-32.000000000000000 9.000000000000000 16.758459722810677
-32.000000000000000 10.000000000000000 16.473890771519578
-32.000000000000000 11.000000000000000 16.162151368622737
-32.000000000000000 12.000000000000000 15.823985018729879
-32.000000000000000 13.000000000000000 15.460167921658915
-32.000000000000000 14.000000000000000 15.071501606854042
-32.000000000000000 15.000000000000000 14.658805905855417
-32.000000000000000 16.000000000000000 14.222912360003363
-32.000000000000000 17.000000000000000 13.764658136013125
-32.000000000000000 18.000000000000000 13.284880498628361
-32.000000000000000 19.000000000000000 12.784411868143209
-32.000000000000000 20.000000000000000 12.264075471773587
-32.000000000000000 21.000000000000000 11.724681581990723
-32.000000000000000 22.000000000000000 11.167024322104801
-32.000000000000000 23.000000000000000 10.591879009523936
-32.000000000000000 24.000000000000000 10.000000000000000
-32.000000000000000 25.000000000000000 9.392118991506095
-32.000000000000000 26.000000000000000 8.768943743823392
-32.000000000000000 27.000000000000000 8.131157169083359
-32.000000000000000 28.000000000000000 7.479416749061400
-32.000000000000000 29.000000000000000 6.814354236621632
-32.000000000000000 30.000000000000000 6.136575601077382
-32.000000000000000 31.000000000000000 5.446661180109075
-32.000000000000000 32.000000000000000 4.745166004060955
-32.000000000000000 33.000000000000000 4.032620261755184
-32.000000000000000 34.000000000000000 3.309529880284991
-32.000000000000000 35.000000000000000 2.576377194482497
-32.000000000000000 36.000000000000000 1.833621684830817
-32.000000000000000 37.000000000000000 1.081700765459964
-31.000000000000000 -37.000000000000000 1.729926455411317
-31.000000000000000 -36.000000000000000 2.492105919121187
-31.000000000000000 -35.000000000000000 3.245321089756160
-31.000000000000000 -34.000000000000000 3.989131718690636
-31.000000000000000 -33.000000000000000 4.723074309312913
-31.000000000000000 -32.000000000000000 5.446661180109075
-31.000000000000000 -31.000000000000000 6.159379566434055
-31.000000000000000 -30.000000000000000 6.860690779754016
-31.000000000000000 -29.000000000000000 7.550029446417753
-31.000000000000000 -28.000000000000000 8.226802851589156
-31.000000000000000 -27.000000000000000 8.890390417811069
-31.000000000000000 -26.000000000000000 9.540143351712182
-31.000000000000000 -25.000000000000000 10.175384496520245
-31.000000000000000 -24.000000000000000 10.795408432174682
-31.000000000000000 -23.000000000000000 11.399481868762436
-31.000000000000000 -22.000000000000000 11.986844382503577
-31.000000000000000 -21.000000000000000 12.556709546301889
-31.000000000000000 -20.000000000000000 13.108266508606569
-31.000000000000000 -19.000000000000000 13.640682074604314
-31.000000000000000 -18.000000000000000 14.153103342130159
-31.000000000000000 -17.000000000000000 14.644660940672622
-31.000000000000000 -16.000000000000000 15.114472914975181
-31.000000000000000 -15.000000000000000 15.561649284554875
-31.000000000000000 -14.000000000000000 15.985297296610099
-31.000000000000000 -13.000000000000000 16.384527372056780
-31.000000000000000 -12.000000000000000 16.758459722810677
-31.000000000000000 -11.000000000000000 17.106231593202949
-31.000000000000000 -10.000000000000000 17.427005050195341
-31.000000000000000 -9.000000000000000 17.719975216862053
-31.000000000000000 -8.000000000000000 17.984378812835757
-31.000000000000000 -7.000000000000000 18.219502835858592
-31.000000000000000 -6.000000000000000 18.424693192306112
-31.000000000000000 -5.000000000000000 18.599363063784836
-31.000000000000000 -4.000000000000000 18.743000783824431
-31.000000000000000 -3.000000000000000 18.855176995205127
-31.000000000000000 -2.000000000000000 18.935550865981867
-31.000000000000000 -1.000000000000000 18.983875161458354
-31.000000000000000 0.000000000000000 19.000000000000000
-31.000000000000000 1.000000000000000 18.983875161458354
-31.000000000000000 2.000000000000000 18.935550865981867
-31.000000000000000 3.000000000000000 18.855176995205127
-31.000000000000000 4.000000000000000 18.743000783824431
-31.000000000000000 5.000000000000000 18.599363063784836
-31.000000000000000 6.000000000000000 18.424693192306112
-31.000000000000000 7.000000000000000 18.219502835858592
-31.000000000000000 8.000000000000000 17.984378812835757
-31.000000000000000 9.000000000000000 17.719975216862053
-31.000000000000000 10.000000000000000 17.427005050195341
-31.000000000000000 11.000000000000000 17.106231593202949
-31.000000000000000 12.000000000000000 16.758459722810677
-31.000000000000000 13.000000000000000 16.384527372056780
-31.000000000000000 14.000000000000000 15.985297296610099
-31.000000000000000 15.000000000000000 15.561649284554875
-31.000000000000000 16.000000000000000 15.114472914975181
-31.000000000000000 17.000000000000000 14.644660940672622
-31.000000000000000 18.000000000000000 14.153103342130159
-31.000000000000000 19.000000000000000 13.640682074604314
-31.000000000000000 20.000000000000000 13.108266508606569
-31.000000000000000 21.000000000000000 12.556709546301889
-31.000000000000000 22.000000000000000 11.986844382503577
-31.000000000000000 23.000000000000000 11.399481868762436
-31.000000000000000 24.000000000000000 10.795408432174682
-31.000000000000000 25.000000000000000 10.175384496520245
-31.000000000000000 26.000000000000000 9.540143351712182
-31.000000000000000 27.000000000000000 8.890390417811069
-31.000000000000000 28.000000000000000 8.226802851589156
-31.000000000000000 29.000000000000000 7.550029446417753
-31.000000000000000 30.000000000000000 6.860690779754016
-31.000000000000000 31.000000000000000 6.159379566434055
-31.000000000000000 32.000000000000000 5.446661180109075
-31.000000000000000 33.000000000000000 4.723074309312913
-31.000000000000000 34.000000000000000 3.989131718690636
-31.000000000000000 35.000000000000000 3.245321089756160
-31.000000000000000 36.000000000000000 2.492105919121187
-31.000000000000000 37.000000000000000 1.729926455411317
-30.000000000000000 -38.000000000000000 1.585126252359181
-30.000000000000000 -37.000000000000000 2.365978544741786
-30.000000000000000 -36.000000000000000 3.138501944560076
-30.000000000000000 -35.000000000000000 3.902277713535561
-30.000000000000000 -34.000000000000000 4.656863804981462
-30.000000000000000 -33.000000000000000 5.401793758044484
-30.000000000000000 -32.000000000000000 6.136575601077382
-30.000000000000000 -31.000000000000000 6.860690779754016
-30.000000000000000 -30.000000000000000 7.573593128807147
-30.000000000000000 -29.000000000000000 8.274707909949868
-30.000000000000000 -28.000000000000000 8.963430942633615
-30.000000000000000 -27.000000000000000 9.639127858778870
-30.000000000000000 -26.000000000000000 10.301133517441585
-30.000000000000000 -25.000000000000000 10.948751620466730
-30.000000000000000 -24.000000000000000 11.581254575402909
-30.000000000000000 -23.000000000000000 12.197883657128401
-30.000000000000000 -22.000000000000000 12.797849524523450
-30.000000000000000 -21.000000000000000 13.380333152798890
-30.000000000000000 -20.000000000000000 13.944487245360108
-30.000000000000000 -19.000000000000000 14.489438190870594
-30.000000000000000 -18.000000000000000 15.014288630928199
-30.000000000000000 -17.000000000000000 15.518120700866668
-30.000000000000000 -16.000000000000000 16.000000000000000
-30.000000000000000 -15.000000000000000 16.458980337503156
-30.000000000000000 -14.000000000000000 16.894109285506303
-30.000000000000000 -13.000000000000000 17.304434551456367
-30.000000000000000 -12.000000000000000 17.689011157192979
-30.000000000000000 -11.000000000000000 18.046909382659084
-30.000000000000000 -10.000000000000000 18.377223398316207
-30.000000000000000 -9.000000000000000 18.679080473268350
-30.000000000000000 -8.000000000000000 18.951650607479952
-30.000000000000000 -7.000000000000000 19.194156398501274
-30.000000000000000 -6.000000000000000 19.405882918443289
-30.000000000000000 -5.000000000000000 19.586187348508901
-30.000000000000000 -4.000000000000000 19.734508099156887
-30.000000000000000 -3.000000000000000 19.850373136637330
-30.000000000000000 -2.000000000000000 19.933407243254184
-30.000000000000000 -1.000000000000000 19.983337960392731
-30.000000000000000 0.000000000000000 20.000000000000000
-30.000000000000000 1.000000000000000 19.983337960392731
-30.000000000000000 2.000000000000000 19.933407243254184
-30.000000000000000 3.000000000000000 19.850373136637330
-30.000000000000000 4.000000000000000 19.734508099156887
-30.000000000000000 5.000000000000000 19.586187348508901
-30.000000000000000 6.000000000000000 19.405882918443289
-30.000000000000000 7.000000000000000 19.194156398501274
-30.000000000000000 8.000000000000000 18.951650607479952
-30.000000000000000 9.000000000000000 18.679080473268350
-30.000000000000000 10.000000000000000 18.377223398316207
-30.000000000000000 11.000000000000000 18.046909382659084
-30.000000000000000 12.000000000000000 17.689011157192979
-30.000000000000000 13.000000000000000 17.304434551456367
-30.000000000000000 14.000000000000000 16.894109285506303
-30.000000000000000 15.000000000000000 16.458980337503156
-30.000000000000000 16.000000000000000 16.000000000000000
-30.000000000000000 17.000000000000000 15.518120700866668
-30.000000000000000 18.000000000000000 15.014288630928199
-30.000000000000000 19.000000000000000 14.489438190870594
-30.000000000000000 20.000000000000000 13.944487245360108
-30.000000000000000 21.000000000000000 13.380333152798890
-30.000000000000000 22.000000000000000 12.797849524523450
-30.000000000000000 23.000000000000000 12.197883657128401
-30.000000000000000 24.000000000000000 11.581254575402909
-30.000000000000000 25.000000000000000 10.948751620466730
-30.000000000000000 26.000000000000000 10.301133517441585
-30.000000000000000 27.000000000000000 9.639127858778870
-30.000000000000000 28.000000000000000 8.963430942633615
-30.000000000000000 29.000000000000000 8.274707909949868
-30.000000000000000 30.000000000000000 7.573593128807147
-30.000000000000000 31.000000000000000 6.860690779754016
-30.000000000000000 32.000000000000000 6.136575601077382
-30.000000000000000 33.000000000000000 5.401793758044484
-30.000000000000000 34.000000000000000 4.656863804981462
-30.000000000000000 35.000000000000000 3.902277713535561
-30.000000000000000 36.000000000000000 3.138501944560076
-30.000000000000000 37.000000000000000 2.365978544741786
-30.000000000000000 38.000000000000000 1.585126252359181
-29.000000000000000 -39.000000000000000 1.399588479108530
-29.000000000000000 -38.000000000000000 2.198326389131523
-29.000000000000000 -37.000000000000000 2.989362905827363
-29.000000000000000 -36.000000000000000 3.772302674695119
-29.000000000000000 -35.000000000000000 4.546727290545952
-29.000000000000000 -34.000000000000000 5.312194056991338
-29.000000000000000 -33.000000000000000 6.068234727022407
-29.000000000000000 -32.000000000000000 6.814354236621632
-29.000000000000000 -31.000000000000000 7.550029446417753
-29.000000000000000 -30.000000000000000 8.274707909949868
-29.000000000000000 -29.000000000000000 8.987806691180246
-29.000000000000000 -28.000000000000000 9.688711258507254
-29.000000000000000 -27.000000000000000 10.376774487682098
-29.000000000000000 -26.000000000000000 11.051315811699105
-29.000000000000000 -25.000000000000000 11.711620561846708
-29.000000000000000 -24.000000000000000 12.356939550562579
-29.000000000000000 -23.000000000000000 12.986488953356506
-29.000000000000000 -22.000000000000000 13.599450553597407
-29.000000000000000 -21.000000000000000 14.194972420063685
-29.000000000000000 -20.000000000000000 14.772170092382929
-29.000000000000000 -19.000000000000000 15.330128353280571
-29.000000000000000 -18.000000000000000 15.867903668247976
-29.000000000000000 -17.000000000000000 16.384527372056780
-29.000000000000000 -16.000000000000000 16.879009676641608
-29.000000000000000 -15.000000000000000 17.350344565370982
-29.000000000000000 -14.000000000000000 17.797515623790765
-29.000000000000000 -13.000000000000000 18.219502835858592
-29.000000000000000 -12.000000000000000 18.615290347049569
-29.000000000000000 -11.000000000000000 18.983875161458354
-29.000000000000000 -10.000000000000000 19.324276699644066
-29.000000000000000 -9.000000000000000 19.635547098622048
-29.000000000000000 -8.000000000000000 19.916782087017353
-29.000000000000000 -7.000000000000000 20.167132219647403
-29.000000000000000 -6.000000000000000 20.385814210078305
-29.000000000000000 -5.000000000000000 20.572122060875678
-29.000000000000000 -4.000000000000000 20.725437663391105
-29.000000000000000 -3.000000000000000 20.845240525773498
-29.000000000000000 -2.000000000000000 20.931116292502733
-29.000000000000000 -1.000000000000000 20.982763742906183
-29.000000000000000 0.000000000000000 21.000000000000000
-29.000000000000000 1.000000000000000 20.982763742906183
-29.000000000000000 2.000000000000000 20.931116292502733
-29.000000000000000 3.000000000000000 20.845240525773498
-29.000000000000000 4.000000000000000 20.725437663391105
-29.000000000000000 5.000000000000000 20.572122060875678
-29.000000000000000 6.000000000000000 20.385814210078305
-29.000000000000000 7.000000000000000 20.167132219647403
-29.000000000000000 8.000000000000000 19.916782087017353
-29.000000000000000 9.000000000000000 19.635547098622048
-29.000000000000000 10.000000000000000 19.324276699644066
-29.000000000000000 11.000000000000000 18.983875161458354
-29.000000000000000 12.000000000000000 18.615290347049569
-29.000000000000000 13.000000000000000 18.219502835858592
-29.000000000000000 14.000000000000000 17.797515623790765
-29.000000000000000 15.000000000000000 17.350344565370982
-29.000000000000000 16.000000000000000 16.879009676641608
-29.000000000000000 17.000000000000000 16.384527372056780
-29.000000000000000 18.000000000000000 15.867903668247976
-29.000000000000000 19.000000000000000 15.330128353280571
-29.000000000000000 20.000000000000000 14.772170092382929
-29.000000000000000 21.000000000000000 14.194972420063685
-29.000000000000000 22.000000000000000 13.599450553597407
-29.000000000000000 23.000000000000000 12.986488953356506
-29.000000000000000 24.000000000000000 12.356939550562579
-29.000000000000000 25.000000000000000 11.711620561846708
-29.000000000000000 26.000000000000000 11.051315811699105
-29.000000000000000 27.000000000000000 10.376774487682098
-29.000000000000000 28.000000000000000 9.688711258507254
-29.000000000000000 29.000000000000000 8.987806691180246
-29.000000000000000 30.000000000000000 8.274707909949868
-29.000000000000000 31.000000000000000 7.550029446417753
-29.000000000000000 32.000000000000000 6.814354236621632
-29.000000000000000 33.000000000000000 6.068234727022407
-29.000000000000000 34.000000000000000 5.312194056991338
-29.000000000000000 35.000000000000000 4.546727290545952
-29.000000000000000 36.000000000000000 3.772302674695119
-29.000000000000000 37.000000000000000 2.989362905827363
-29.000000000000000 38.000000000000000 2.198326389131523
-29.000000000000000 39.000000000000000 1.399588479108530
-28.000000000000000 -40.000000000000000 1.173777537065192
-28.000000000000000 -39.000000000000000 1.989584463368786
-28.000000000000000 -38.000000000000000 2.798305115176213
-28.000000000000000 -37.000000000000000 3.599568967519275
-28.000000000000000 -36.000000000000000 4.392982996034483
-28.000000000000000 -35.000000000000000 5.178130337970060
-28.000000000000000 -34.000000000000000 5.954568908909522
-28.000000000000000 -33.000000000000000 6.721829983235196
-28.000000000000000 -32.000000000000000 7.479416749061400
-28.000000000000000 -31.000000000000000 8.226802851589156
-28.000000000000000 -30.000000000000000 8.963430942633615
-28.000000000000000 -29.000000000000000 9.688711258507254
-28.000000000000000 -28.000000000000000 10.402020253553339
-28.000000000000000 -27.000000000000000 11.102699322446554
-28.000000000000000 -26.000000000000000 11.790053650914402
-28.000000000000000 -25.000000000000000 12.463351241753081
-28.000000000000000 -24.000000000000000 13.121822170828452
-28.000000000000000 -23.000000000000000 13.764658136013125
-28.000000000000000 -22.000000000000000 14.391012370470285
-28.000000000000000 -21.000000000000000 15.000000000000000
-28.000000000000000 -20.000000000000000 15.590698931829493
-28.000000000000000 -19.000000000000000 16.162151368622737
-28.000000000000000 -18.000000000000000 16.713366045813522
-28.000000000000000 -17.000000000000000 17.243321291681603
-28.000000000000000 -16.000000000000000 17.750969006805803
-28.000000000000000 -15.000000000000000 18.235239651462820
-28.000000000000000 -14.000000000000000 18.695048315002943
-28.000000000000000 -13.000000000000000 19.129301919133738
-28.000000000000000 -12.000000000000000 19.536907576544365
-28.000000000000000 -11.000000000000000 19.916782087017353
-28.000000000000000 -10.000000000000000 20.267862505362988
-28.000000000000000 -9.000000000000000 20.589117660294516
-28.000000000000000 -8.000000000000000 20.879560442877928
-28.000000000000000 -7.000000000000000 21.138260620676377
-28.000000000000000 -6.000000000000000 21.364357873447293
-28.000000000000000 -5.000000000000000 21.557074693344216
-28.000000000000000 -4.000000000000000 21.715728752538098
-28.000000000000000 -3.000000000000000 21.839744319342554
-28.000000000000000 -2.000000000000000 21.928662304763602
-28.000000000000000 -1.000000000000000 21.982148547756200
-28.000000000000000 0.000000000000000 22.000000000000000
-28.000000000000000 1.000000000000000 21.982148547756200
-28.000000000000000 2.000000000000000 21.928662304763602
-28.000000000000000 3.000000000000000 21.839744319342554
-28.000000000000000 4.000000000000000 21.715728752538098
-28.000000000000000 5.000000000000000 21.557074693344216
-28.000000000000000 6.000000000000000 21.364357873447293
-28.000000000000000 7.000000000000000 21.138260620676377
-28.000000000000000 8.000000000000000 20.879560442877928
-28.000000000000000 9.000000000000000 20.589117660294516
-28.000000000000000 10.000000000000000 20.267862505362988
-28.000000000000000 11.000000000000000 19.916782087017353
-28.000000000000000 12.000000000000000 19.536907576544365
-28.000000000000000 13.000000000000000 19.129301919133738
-28.000000000000000 14.000000000000000 18.695048315002943
-28.000000000000000 15.000000000000000 18.235239651462820
-28.000000000000000 16.000000000000000 17.750969006805803
-28.000000000000000 17.000000000000000 17.243321291681603
-28.000000000000000 18.000000000000000 16.713366045813522
-28.000000000000000 19.000000000000000 16.162151368622737
-28.000000000000000 20.000000000000000 15.590698931829493
-28.000000000000000 21.000000000000000 15.000000000000000
-28.000000000000000 22.000000000000000 14.391012370470285
-28.000000000000000 23.000000000000000 13.764658136013125
-28.000000000000000 24.000000000000000 13.121822170828452
-28.000000000000000 25.000000000000000 12.463351241753081
-28.000000000000000 26.000000000000000 11.790053650914402
-28.000000000000000 27.000000000000000 11.102699322446554
-28.000000000000000 28.000000000000000 10.402020253553339
-28.000000000000000 29.000000000000000 9.688711258507254
-28.000000000000000 30.000000000000000 8.963430942633615
-28.000000000000000 31.000000000000000 8.226802851589156
-28.000000000000000 32.000000000000000 7.479416749061400
-28.000000000000000 33.000000000000000 6.721829983235196
-28.000000000000000 34.000000000000000 5.954568908909522
-28.000000000000000 35.000000000000000 5.178130337970060
-28.000000000000000 36.000000000000000 4.392982996034483
-28.000000000000000 37.000000000000000 3.599568967519275
-28.000000000000000 38.000000000000000 2.798305115176213
-28.000000000000000 39.000000000000000 1.989584463368786
-28.000000000000000 40.000000000000000 1.173777537065192
-27.000000000000000 -40.000000000000000 1.740285951945381
-27.000000000000000 -39.000000000000000 2.565835097474313
-27.000000000000000 -38.000000000000000 3.384551916773340
-27.000000000000000 -37.000000000000000 4.196070037604855
-27.000000000000000 -36.000000000000000 5.000000000000000
-27.000000000000000 -35.000000000000000 5.795927789399315
-27.000000000000000 -34.000000000000000 6.583413307815178
-27.000000000000000 -33.000000000000000 7.361988789344316
-27.000000000000000 -32.000000000000000 8.131157169083359
-27.000000000000000 -31.000000000000000 8.890390417811069
-27.000000000000000 -30.000000000000000 9.639127858778870
-27.000000000000000 -29.000000000000000 10.376774487682098
-27.000000000000000 -28.000000000000000 11.102699322446554
-27.000000000000000 -27.000000000000000 11.816233815926431
-27.000000000000000 -26.000000000000000 12.516670372017373
-27.000000000000000 -25.000000000000000 13.203261014051805
-27.000000000000000 -24.000000000000000 13.875216263623116
-27.000000000000000 -23.000000000000000 14.531704298063602
-27.000000000000000 -22.000000000000000 15.171850465464004
-27.000000000000000 -21.000000000000000 15.794737247025857
-27.000000000000000 -20.000000000000000 16.399404767177117
-27.000000000000000 -19.000000000000000 16.984851961561645
-27.000000000000000 -18.000000000000000 17.550038520824096
-27.000000000000000 -17.000000000000000 18.093887732912368
-27.000000000000000 -16.000000000000000 18.615290347049569
-27.000000000000000 -15.000000000000000 19.113109577038998
-27.000000000000000 -14.000000000000000 19.586187348508901
-27.000000000000000 -13.000000000000000 20.033351872456606
-27.000000000000000 -12.000000000000000 20.453426594611685
-27.000000000000000 -11.000000000000000 20.845240525773498
-27.000000000000000 -10.000000000000000 21.207639902224063
-27.000000000000000 -9.000000000000000 21.539501058484586
-27.000000000000000 -8.000000000000000 21.839744319342554
-27.000000000000000 -7.000000000000000 22.107348638037294
-27.000000000000000 -6.000000000000000 22.341366628121339
-27.000000000000000 -5.000000000000000 22.540939564508037
-27.000000000000000 -4.000000000000000 22.705311872087638
-27.000000000000000 -3.000000000000000 22.833844585587752
-27.000000000000000 -2.000000000000000 22.926027258638232
-27.000000000000000 -1.000000000000000 22.981487827787408
-27.000000000000000 0.000000000000000 23.000000000000000
-27.000000000000000 1.000000000000000 22.981487827787408
-27.000000000000000 2.000000000000000 22.926027258638232
-27.000000000000000 3.000000000000000 22.833844585587752
-27.000000000000000 4.000000000000000 22.705311872087638
-27.000000000000000 5.000000000000000 22.540939564508037
-27.000000000000000 6.000000000000000 22.341366628121339
-27.000000000000000 7.000000000000000 22.107348638037294
-27.000000000000000 8.000000000000000 21.839744319342554
-27.000000000000000 9.000000000000000 21.539501058484586
-27.000000000000000 10.000000000000000 21.207639902224063
-27.000000000000000 11.000000000000000 20.845240525773498
-27.000000000000000 12.000000000000000 20.453426594611685
-27.000000000000000 13.000000000000000 20.033351872456606
-27.000000000000000 14.000000000000000 19.586187348508901
-27.000000000000000 15.000000000000000 19.113109577038998
-27.000000000000000 16.000000000000000 18.615290347049569
-27.000000000000000 17.000000000000000 18.093887732912368
-27.000000000000000 18.000000000000000 17.550038520824096
-27.000000000000000 19.000000000000000 16.984851961561645
-27.000000000000000 20.000000000000000 16.399404767177117
-27.000000000000000 21.000000000000000 15.794737247025857
-27.000000000000000 22.000000000000000 15.171850465464004
-27.000000000000000 23.000000000000000 14.531704298063602
-27.000000000000000 24.000000000000000 13.875216263623116
-27.000000000000000 25.000000000000000 13.203261014051805
-27.000000000000000 26.000000000000000 12.516670372017373
-27.000000000000000 27.000000000000000 11.816233815926431
-27.000000000000000 28.000000000000000 11.102699322446554
-27.000000000000000 29.000000000000000 10.376774487682098
-27.000000000000000 30.000000000000000 9.639127858778870
-27.000000000000000 31.000000000000000 8.890390417811069
-27.000000000000000 32.000000000000000 8.131157169083359
-27.000000000000000 33.000000000000000 7.361988789344316
-27.000000000000000 34.000000000000000 6.583413307815178
-27.000000000000000 35.000000000000000 5.795927789399315
-27.000000000000000 36.000000000000000 5.000000000000000
-27.000000000000000 37.000000000000000 4.196070037604855
-27.000000000000000 38.000000000000000 3.384551916773340
-27.000000000000000 39.000000000000000 2.565835097474313
-27.000000000000000 40.000000000000000 1.740285951945381
-26.000000000000000 -41.000000000000000 1.451055624246578
-26.000000000000000 -40.000000000000000 2.292558232493747
-26.000000000000000 -39.000000000000000 3.127833418968137
-26.000000000000000 -38.000000000000000 3.956542267114649
-26.000000000000000 -37.000000000000000 4.778323781619946
-26.000000000000000 -36.000000000000000 5.592793377650963
-26.000000000000000 -35.000000000000000 6.399541286816721
-26.000000000000000 -34.000000000000000 7.198130881934610
-26.000000000000000 -33.000000000000000 7.988096924799990
-26.000000000000000 -32.000000000000000 8.768943743823392
-26.000000000000000 -31.000000000000000 9.540143351712182
-26.000000000000000 -30.000000000000000 10.301133517441585
-26.000000000000000 -29.000000000000000 11.051315811699105
-26.000000000000000 -28.000000000000000 11.790053650914402
-26.000000000000000 -27.000000000000000 12.516670372017373
-26.000000000000000 -26.000000000000000 13.230447378299530
-26.000000000000000 -25.000000000000000 13.930622406257136
-26.000000000000000 -24.000000000000000 14.616387974091737
-26.000000000000000 -23.000000000000000 15.286890084580435
-26.000000000000000 -22.000000000000000 15.941227268147195
-26.000000000000000 -21.000000000000000 16.578450065863194
-26.000000000000000 -20.000000000000000 17.197561066286546
-26.000000000000000 -19.000000000000000 17.797515623790765
-26.000000000000000 -18.000000000000000 18.377223398316207
-26.000000000000000 -17.000000000000000 18.935550865981867
-26.000000000000000 -16.000000000000000 19.471324955052506
-26.000000000000000 -15.000000000000000 19.983337960392731
-26.000000000000000 -14.000000000000000 20.470353879533199
-26.000000000000000 -13.000000000000000 20.931116292502733
-26.000000000000000 -12.000000000000000 21.364357873447293
-26.000000000000000 -11.000000000000000 21.768811573013792
-26.000000000000000 -10.000000000000000 22.143223445631762
-26.000000000000000 -9.000000000000000 22.486367015604792
-26.000000000000000 -8.000000000000000 22.797058982529112
-26.000000000000000 -7.000000000000000 23.074175964327480
-26.000000000000000 -6.000000000000000 23.316671871747332
-26.000000000000000 -5.000000000000000 23.523595410252547
-26.000000000000000 -4.000000000000000 23.694107124068189
-26.000000000000000 -3.000000000000000 23.827495343395199
-26.000000000000000 -2.000000000000000 23.923190379189403
-26.000000000000000 -1.000000000000000 23.980776337484624
-26.000000000000000 0.000000000000000 24.000000000000000
-26.000000000000000 1.000000000000000 23.980776337484624
-26.000000000000000 2.000000000000000 23.923190379189403
-26.000000000000000 3.000000000000000 23.827495343395199
-26.000000000000000 4.000000000000000 23.694107124068189
-26.000000000000000 5.000000000000000 23.523595410252547
-26.000000000000000 6.000000000000000 23.316671871747332
-26.000000000000000 7.000000000000000 23.074175964327480
-26.000000000000000 8.000000000000000 22.797058982529112
-26.000000000000000 9.000000000000000 22.486367015604792
-26.000000000000000 10.000000000000000 22.143223445631762
-26.000000000000000 11.000000000000000 21.768811573013792
-26.000000000000000 12.000000000000000 21.364357873447293
-26.000000000000000 13.000000000000000 20.931116292502733
-26.000000000000000 14.000000000000000 20.470353879533199
-26.000000000000000 15.000000000000000 19.983337960392731
-26.000000000000000 16.000000000000000 19.471324955052506
-26.000000000000000 17.000000000000000 18.935550865981867
-26.000000000000000 18.000000000000000 18.377223398316207
-26.000000000000000 19.000000000000000 17.797515623790765
-26.000000000000000 20.000000000000000 17.197561066286546
-26.000000000000000 21.000000000000000 16.578450065863194
-26.000000000000000 22.000000000000000 15.941227268147195
-26.000000000000000 23.000000000000000 15.286890084580435
-26.000000000000000 24.000000000000000 14.616387974091737
-26.000000000000000 25.000000000000000 13.930622406257136
-26.000000000000000 26.000000000000000 13.230447378299530
-26.000000000000000 27.000000000000000 12.516670372017373
-26.000000000000000 28.000000000000000 11.790053650914402
-26.000000000000000 29.000000000000000 11.051315811699105
-26.000000000000000 30.000000000000000 10.301133517441585
-26.000000000000000 31.000000000000000 9.540143351712182
-26.000000000000000 32.000000000000000 8.768943743823392
-26.000000000000000 33.000000000000000 7.988096924799990
-26.000000000000000 34.000000000000000 7.198130881934610
-26.000000000000000 35.000000000000000 6.399541286816721
-26.000000000000000 36.000000000000000 5.592793377650963
-26.000000000000000 37.000000000000000 4.778323781619946
-26.000000000000000 38.000000000000000 3.956542267114649
-26.000000000000000 39.000000000000000 3.127833418968137
-26.000000000000000 40.000000000000000 2.292558232493747
-26.000000000000000 41.000000000000000 1.451055624246578
-25.000000000000000 -42.000000000000000 1.122602360600254
-25.000000000000000 -41.000000000000000 1.979171185828122
-25.000000000000000 -40.000000000000000 2.830094339716979
-25.000000000000000 -39.000000000000000 3.675060712398121
-25.000000000000000 -38.000000000000000 4.513738337823362
-25.000000000000000 -37.000000000000000 5.345772876467784
-25.000000000000000 -36.000000000000000 6.170785998377745
-25.000000000000000 -35.000000000000000 6.988373664786863
-25.000000000000000 -34.000000000000000 7.798104307981617
-25.000000000000000 -33.000000000000000 8.599516911031095
-25.000000000000000 -32.000000000000000 9.392118991506095
-25.000000000000000 -31.000000000000000 10.175384496520245
-25.000000000000000 -30.000000000000000 10.948751620466730
-25.000000000000000 -29.000000000000000 11.711620561846708
-25.000000000000000 -28.000000000000000 12.463351241753081
-25.000000000000000 -27.000000000000000 13.203261014051805
-25.000000000000000 -26.000000000000000 13.930622406257136
-25.000000000000000 -25.000000000000000 14.644660940672622
-25.000000000000000 -24.000000000000000 15.344553097673085
-25.000000000000000 -23.000000000000000 16.029424497073940
-25.000000000000000 -22.000000000000000 16.698348389306574
-25.000000000000000 -21.000000000000000 17.350344565370982
-25.000000000000000 -20.000000000000000 17.984378812835757
-25.000000000000000 -19.000000000000000 18.599363063784836
-25.000000000000000 -18.000000000000000 19.194156398501274
-25.000000000000000 -17.000000000000000 19.767567084338051
-25.000000000000000 -16.000000000000000 20.318355840688341
-25.000000000000000 -15.000000000000000 20.845240525773498
-25.000000000000000 -14.000000000000000 21.346902436211195
-25.000000000000000 -13.000000000000000 21.821994392789257
-25.000000000000000 -12.000000000000000 22.269150752275905
-25.000000000000000 -11.000000000000000 22.686999432504674
-25.000000000000000 -10.000000000000000 23.074175964327480
-25.000000000000000 -9.000000000000000 23.429339488827154
-25.000000000000000 -8.000000000000000 23.751190503186624
-25.000000000000000 -7.000000000000000 24.038490028505660
-25.000000000000000 -6.000000000000000 24.290079735635118
-25.000000000000000 -5.000000000000000 24.504902432036076
-25.000000000000000 -4.000000000000000 24.682022197655673
-25.000000000000000 -3.000000000000000 24.820643375971656
-25.000000000000000 -2.000000000000000 24.920127592031093
-25.000000000000000 -1.000000000000000 24.980007993606392
-25.000000000000000 0.000000000000000 25.000000000000000
-25.000000000000000 1.000000000000000 24.980007993606392
-25.000000000000000 2.000000000000000 24.920127592031093
-25.000000000000000 3.000000000000000 24.820643375971656
-25.000000000000000 4.000000000000000 24.682022197655673
-25.000000000000000 5.000000000000000 24.504902432036076
-25.000000000000000 6.000000000000000 24.290079735635118
-25.000000000000000 7.000000000000000 24.038490028505660
-25.000000000000000 8.000000000000000 23.751190503186624
-25.000000000000000 9.000000000000000 23.429339488827154
-25.000000000000000 10.000000000000000 23.074175964327480
-25.000000000000000 11.000000000000000 22.686999432504674
-25.000000000000000 12.000000000000000 22.269150752275905
-25.000000000000000 13.000000000000000 21.821994392789257
-25.000000000000000 14.000000000000000 21.346902436211195
-25.000000000000000 15.000000000000000 20.845240525773498
-25.000000000000000 16.000000000000000 20.318355840688341
-25.000000000000000 17.000000000000000 19.767567084338051
-25.000000000000000 18.000000000000000 19.194156398501274
-25.000000000000000 19.000000000000000 18.599363063784836
-25.000000000000000 20.000000000000000 17.984378812835757
-25.000000000000000 21.000000000000000 17.350344565370982
-25.000000000000000 22.000000000000000 16.698348389306574
-25.000000000000000 23.000000000000000 16.029424497073940
-25.000000000000000 24.000000000000000 15.344553097673085
-25.000000000000000 25.000000000000000 14.644660940672622
-25.000000000000000 26.000000000000000 13.930622406257136
-25.000000000000000 27.000000000000000 13.203261014051805
-25.000000000000000 28.000000000000000 12.463351241753081
-25.000000000000000 29.000000000000000 11.711620561846708
-25.000000000000000 30.000000000000000 10.948751620466730
-25.000000000000000 31.000000000000000 10.175384496520245
-25.000000000000000 32.000000000000000 9.392118991506095
-25.000000000000000 33.000000000000000 8.599516911031095
-25.000000000000000 34.000000000000000 7.798104307981617
-25.000000000000000 35.000000000000000 6.988373664786863
-25.000000000000000 36.000000000000000 6.170785998377745
-25.000000000000000 37.000000000000000 5.345772876467784
-25.000000000000000 38.000000000000000 4.513738337823362
-25.000000000000000 39.000000000000000 3.675060712398121
-25.000000000000000 40.000000000000000 2.830094339716979
-25.000000000000000 41.000000000000000 1.979171185828122
-25.000000000000000 42.000000000000000 1.122602360600254
-24.000000000000000 -42.000000000000000 1.626453510208705
-24.000000000000000 -41.000000000000000 2.492105919121187
-24.000000000000000 -40.000000000000000 3.352384841237594
-24.000000000000000 -39.000000000000000 4.206987432578757
-24.000000000000000 -38.000000000000000 5.055589891511538
-24.000000000000000 -37.000000000000000 5.897845857600110
-24.000000000000000 -36.000000000000000 6.733384694432125
-24.000000000000000 -35.000000000000000 7.561809652154110
-24.000000000000000 -34.000000000000000 8.382695906630374
-24.000000000000000 -33.000000000000000 9.195588473793670
-24.000000000000000 -32.000000000000000 10.000000000000000
-24.000000000000000 -31.000000000000000 10.795408432174682
-24.000000000000000 -30.000000000000000 11.581254575402909
-24.000000000000000 -29.000000000000000 12.356939550562579
-24.000000000000000 -28.000000000000000 13.121822170828452
-24.000000000000000 -27.000000000000000 13.875216263623116
-24.000000000000000 -26.000000000000000 14.616387974091737
-24.000000000000000 -25.000000000000000 15.344553097673085
-24.000000000000000 -24.000000000000000 16.058874503045722
-24.000000000000000 -23.000000000000000 16.758459722810677
-24.000000000000000 -22.000000000000000 17.442358807800588
-24.000000000000000 -21.000000000000000 18.109562561796050
-24.000000000000000 -20.000000000000000 18.759001296373384
-24.000000000000000 -19.000000000000000 19.389544269972067
-24.000000000000000 -18.000000000000000 20.000000000000000
-24.000000000000000 -17.000000000000000 20.589117660294516
-24.000000000000000 -16.000000000000000 21.155589796288087
-24.000000000000000 -15.000000000000000 21.698056603830189
-24.000000000000000 -14.000000000000000 22.215112021100392
-24.000000000000000 -13.000000000000000 22.705311872087638
-24.000000000000000 -12.000000000000000 23.167184270002522
-24.000000000000000 -11.000000000000000 23.599242435111830
-24.000000000000000 -10.000000000000000 24.000000000000000
-24.000000000000000 -9.000000000000000 24.367988764047407
-24.000000000000000 -8.000000000000000 24.701778718652964
-24.000000000000000 -7.000000000000000 25.000000000000000
-24.000000000000000 -6.000000000000000 25.261366246294038
-24.000000000000000 -5.000000000000000 25.484698655737475
-24.000000000000000 -4.000000000000000 25.668949878807123
-24.000000000000000 -3.000000000000000 25.813226755104353
-24.000000000000000 -2.000000000000000 25.916810842415408
-24.000000000000000 -1.000000000000000 25.979175701071373
-24.000000000000000 0.000000000000000 26.000000000000000
-24.000000000000000 1.000000000000000 25.979175701071373
-24.000000000000000 2.000000000000000 25.916810842415408
-24.000000000000000 3.000000000000000 25.813226755104353
-24.000000000000000 4.000000000000000 25.668949878807123
-24.000000000000000 5.000000000000000 25.484698655737475
-24.000000000000000 6.000000000000000 25.261366246294038
-24.000000000000000 7.000000000000000 25.000000000000000
-24.000000000000000 8.000000000000000 24.701778718652964
-24.000000000000000 9.000000000000000 24.367988764047407
-24.000000000000000 10.000000000000000 24.000000000000000
-24.000000000000000 11.000000000000000 23.599242435111830
-24.000000000000000 12.000000000000000 23.167184270002522
-24.000000000000000 13.000000000000000 22.705311872087638
-24.000000000000000 14.000000000000000 22.215112021100392
-24.000000000000000 15.000000000000000 21.698056603830189
-24.000000000000000 16.000000000000000 21.155589796288087
-24.000000000000000 17.000000000000000 20.589117660294516
-24.000000000000000 18.000000000000000 20.000000000000000
-24.000000000000000 19.000000000000000 19.389544269972067
-24.000000000000000 20.000000000000000 18.759001296373384
-24.000000000000000 21.000000000000000 18.109562561796050
